ply
format ascii 1.0
comment Created by Open3D
element vertex 1265
property double x
property double y
property double z
property uchar red
property uchar green
property uchar blue
end_header
-1.87463 21.8976 -87.4414 222 221 219
-20.5991 20.6721 -90.383 163 167 166
-15.2161 14.0471 -90.4274 172 177 173
-20.9634 3.05928 -90.4258 192 194 194
-4.08146 -15.2507 -89.9791 63 49 59
-15.3294 -15.5802 -90.3274 162 163 168
-3.60831 10.7536 -87.5404 226 225 223
-0.3185 16.0012 -87.4786 227 232 228
-21.5282 19.9343 -90.5983 190 192 195
-20.9141 22.9485 -90.3792 152 149 158
-22.0816 8.22314 -90.3835 190 197 199
1.12634 -6.15224 -87.7095 241 243 245
-2.28228 22.9329 -90.3901 22 26 34
-8.58753 -0.235392 -90.3658 150 149 154
-4.00161 24.9509 -87.5296 228 234 231
-16.6198 -5.39292 -90.4318 149 148 149
-2.30495 -1.09634 -90.3163 130 128 135
-3.8713 2.4681 -90.2712 129 127 129
3.06978 -12.783 -89.9668 167 166 169
-9.12048 5.40028 -90.364 141 141 141
-5.61012 21.3358 -87.6209 233 238 237
-16.1052 16.4 -90.4204 25 32 46
-13.2815 1.8321 -90.4217 156 162 164
-8.1024 15.2476 -90.3016 137 137 147
-14.7788 12.5756 -90.484 67 81 96
-18.9267 5.70639 -90.5326 185 192 193
-7.88579 -8.22849 -90.2941 148 146 150
-1.96536 23.6363 -90.3914 99 93 99
-18.1131 23.0611 -90.406 60 53 62
-0.995209 7.55202 -87.5302 234 239 238
-18.1181 -4.97926 -90.6386 143 141 143
-2.96993 13.9907 -87.5332 233 238 236
-17.0068 -11.1415 -90.4141 179 182 180
-20.9169 2.03593 -90.4296 194 200 202
-14.1854 12.5647 -90.3935 65 78 90
-6.33871 18.2751 -87.5533 226 227 226
-3.07461 -0.173022 -90.3337 143 143 146
-20.7474 1.19154 -90.4132 193 198 201
-9.22923 -0.0464782 -90.3665 155 153 158
-21.3788 24.5986 -90.4054 156 156 151
-3.04164 -1.33846 -90.2488 142 141 143
-8.10665 10.148 -90.3729 151 152 156
-1.28539 -9.46026 -88.3977 237 237 147
-10.9231 22.8116 -90.4008 147 145 145
-16.6912 8.76197 -90.4798 149 151 151
-10.0516 4.87183 -90.3659 147 147 147
-9.13817 23.0525 -86.9795 136 85 83
-13.1602 -3.06066 -90.37 159 158 159
-15.6918 -16.5575 -90.2923 164 168 173
-6.19395 23.244 -87.6299 231 236 233
-21.5384 18.3058 -90.5641 182 188 187
-19.7022 2.87216 -90.4365 191 199 201
-0.602561 -9.92504 -89.9577 125 147 104
-8.28863 -4.29491 -90.3406 156 157 158
1.76176 -7.08681 -88.2663 244 250 251
-22.6592 17.4 -90.4545 169 175 175
-17.608 2.16445 -90.5709 191 197 200
-21.629 19.991 -90.4093 174 179 180
-19.0159 -9.3061 -90.3505 175 177 174
-9.3204 26.0864 -90.4216 70 70 75
-8.67617 -7.61431 -90.2864 150 150 152
-8.31953 0.268741 -90.3209 141 140 143
-3.04304 6.12242 -87.3959 121 134 148
-13.4724 1.24555 -90.3653 155 155 159
-7.46015 3.55452 -90.3192 149 148 152
-6.09924 1.82767 -90.3912 144 146 146
-8.89802 13.4215 -90.329 165 167 168
-23.0959 10.0772 -90.4068 174 178 180
-18.702 3.17885 -90.5048 190 196 198
-15.9596 10.2029 -90.5686 117 109 115
-10.2811 -4.38324 -90.4225 158 158 161
-23.2951 19.1494 -90.4313 169 175 173
-15.2998 -1.37929 -90.3938 157 157 159
-25.3804 21.1599 -90.2722 170 170 173
2.18659 4.57283 -87.517 132 137 153
-11.2077 -10.7781 -90.3317 151 150 154
-2.97776 -0.535536 -90.2972 143 143 145
-0.651535 5.12758 -87.5362 81 103 129
-10.046 20.0178 -90.3381 147 148 147
-14.2798 21.832 -90.4062 152 148 145
-1.97459 -7.71466 -88.553 151 164 66
-1.2247 13.5624 -87.5335 231 237 235
-17.1313 17.0073 -90.3816 51 59 74
-21.4713 9.30778 -90.3912 185 190 192
-18.9163 18.1678 -90.3798 173 177 175
-0.564564 5.84306 -87.4939 206 210 214
-9.50844 -0.0343221 -90.3633 154 151 156
-11.8142 -13.65 -90.3388 159 159 163
-16.3857 10.0078 -90.5088 196 196 196
-12.5057 22.4985 -90.4686 148 148 150
-12.6711 -5.25584 -90.3985 154 155 159
1.81662 -11.3672 -89.8558 189 186 185
-21.366 22.4818 -90.5514 180 183 180
-7.2947 22.3975 -87.6295 227 232 228
-13.4495 22.373 -90.4177 164 164 164
-22.5715 9.75486 -90.3741 178 183 186
0.724004 13.5625 -87.4783 221 225 219
2.28178 -4.06503 -90.243 121 120 119
-17.6284 23.0226 -89.9687 39 42 50
-18.0788 8.89951 -90.4458 179 185 183
-10.971 -4.34215 -90.3025 155 155 158
0.992607 4.20718 -87.8924 198 198 212
-7.88936 -6.25229 -90.2762 156 156 157
-3.85781 -1.42712 -90.3044 90 92 104
-9.00171 5.86945 -90.4368 142 142 143
-14.0655 25.5416 -90.3964 159 157 158
-1.36362 25.5663 -90.3462 220 218 213
-7.27995 15.5215 -90.4991 164 159 150
-9.57684 2.3963 -89.4515 166 43 68
-23.276 14.31 -90.4261 170 175 175
-2.18104 -8.84106 -88.4799 225 227 130
-23.6314 17.4113 -90.3712 164 169 169
-10.9188 7.22578 -90.3198 169 173 175
-14.9992 24.7047 -90.4797 157 157 158
-1.22429 10.129 -87.5395 232 238 237
-21.9618 7.47254 -90.4936 193 199 199
-10.8153 9.3285 -90.4488 185 189 189
-2.55279 21.3584 -87.4595 224 229 225
-10.885 -12.4715 -90.2843 148 146 152
-18.4647 4.1106 -90.5779 178 184 184
-7.0154 22.8899 -87.5152 228 234 231
-20.8569 20.7549 -90.384 164 166 167
-3.65206 23.7114 -87.5032 228 234 231
-10.6601 23.3005 -90.3852 151 149 150
-17.6325 11.1645 -90.48 159 159 164
0.163748 -7.66626 -87.6816 250 252 254
-17.5776 6.06916 -90.4212 179 184 184
-1.37636 13.4985 -87.5035 228 237 235
0.210679 13.426 -87.4615 225 230 226
-7.40253 19.9427 -90.4956 99 102 106
-1.89764 -9.41874 -89.9643 145 148 128
-9.12408 14.2751 -90.5638 186 193 195
-7.85081 -1.50904 -90.4382 157 158 162
-10.5914 21.7683 -90.4585 148 148 148
-12.7195 5.72296 -90.4618 172 177 175
-22.9103 16.9165 -90.4873 169 174 173
-7.0276 -4.30929 -90.3169 157 157 160
2.19062 -2.55044 -90.2411 116 113 115
-5.36279 3.32259 -90.4101 139 139 141
-1.63346 -1.28079 -90.2854 160 158 161
-4.3792 23.3743 -87.6225 235 237 236
-21.2556 2.77545 -90.5465 197 203 202
-6.64715 10.7048 -90.3595 151 151 152
-19.6434 19.8554 -90.448 170 172 172
-14.2799 24.493 -90.4106 157 157 158
-21.5598 13.2839 -90.4246 171 175 174
-20.1587 25.7188 -90.3731 147 147 145
1.96737 6.41353 -87.5095 225 230 230
-7.51382 -13.6062 -90.2255 136 135 139
-12.6759 17.2705 -90.3748 172 173 175
-15.7816 -3.32851 -90.3729 160 161 161
-12.806 7.09075 -90.3691 171 175 175
-4.35281 16.3889 -87.4782 230 236 234
-16.0062 -7.29726 -90.3666 169 169 171
2.83597 -7.20495 -90.072 34 48 57
-7.86364 14.7939 -90.349 161 166 165
-7.92307 14.2673 -90.3102 163 166 166
-6.01209 -14.9191 -90.2346 114 113 117
-9.39906 -1.71722 -90.3255 160 160 163
-16.4607 12.0986 -90.5142 118 120 127
-20.3484 12.5558 -90.3933 175 179 177
2.66347 -5.6419 -90.0849 35 51 58
-7.00985 -15.2603 -90.1557 125 125 130
-18.6688 24.3119 -90.464 155 154 150
1.0073 9.59338 -87.5321 231 237 236
-16.1007 8.23786 -90.5897 163 176 181
-6.96032 -7.12424 -90.3654 149 148 150
0.997821 -5.53222 -90.1644 20 24 36
-1.06416 -9.9392 -90.0522 121 116 105
-15.6328 -6.61922 -90.4532 157 157 159
-8.64732 -2.68354 -90.3646 152 152 157
-13.1885 -10.7222 -90.363 157 155 158
-18.5561 -3.8356 -88.9502 167 169 167
-17.2788 10.7597 -90.5926 137 133 134
-9.48844 1.09464 -90.4564 146 141 142
-16.0717 -12.886 -90.3593 177 181 179
-9.74547 25.0064 -90.4219 172 168 160
-6.96846 24.761 -87.4916 232 238 238
-2.48908 -13.1188 -89.998 70 37 46
-15.2396 19.9993 -90.3702 141 140 141
-16.8131 10.0847 -90.4646 154 158 157
-24.3553 18.4468 -90.3271 187 192 194
-8.18274 5.54794 -90.3716 143 143 145
-21.6817 21.0111 -90.3204 186 186 189
-3.75222 -4.89914 -90.2635 142 142 146
-11.9062 16.3577 -90.4335 166 171 174
-20.4088 -2.46097 -90.3788 183 188 191
-3.42056 9.84962 -87.5371 228 230 227
-14.8368 11.7688 -90.4584 46 58 74
1.17877 -3.56073 -90.2319 117 113 113
-4.96553 5.98795 -90.3467 125 124 130
-2.45669 6.44797 -87.5116 218 217 215
-15.9429 10.0282 -89.2186 100 41 57
-5.91287 -0.267179 -90.4396 147 147 149
-15.7816 3.70836 -90.3848 184 193 195
-5.6959 2.16263 -90.2864 139 138 140
-7.72907 -6.89185 -90.3298 153 152 155
-22.6328 14.5828 -90.3837 170 173 174
-7.6054 10.3984 -90.4163 153 153 157
2.31311 -6.42495 -90.0576 53 105 106
-13.6421 -15.961 -90.3495 172 172 172
-9.59856 12.2331 -90.349 166 172 173
-2.82244 2.68203 -90.3319 131 125 131
-6.90982 -15.11 -90.2343 127 127 133
-19.118 13.6477 -90.4681 165 170 170
-6.39635 -14.7966 -90.2298 123 120 126
2.81463 -1.69228 -90.3171 127 123 122
-20.2885 14.5582 -90.4151 169 172 172
-4.08711 -12.6121 -90.0689 25 21 31
-0.540577 20.2139 -90.3874 222 217 213
-16.738 1.1301 -90.3449 183 192 194
-12.018 -10.485 -90.4063 152 150 154
-18.974 23.8744 -90.3517 154 153 151
-17.586 10.8802 -90.4041 172 174 171
-23.0291 20.5276 -90.4759 169 174 173
-14.295 22.5013 -90.3115 169 168 166
-18.8946 15.848 -90.4781 166 170 169
-0.627913 -2.63119 -90.2814 31 35 50
2.10514 -9.04174 -89.567 148 171 189
-5.80479 13.9494 -90.3661 131 131 131
-4.3388 19.5015 -87.5354 227 233 231
-18.0958 2.5025 -90.5879 188 194 197
-8.87165 1.1955 -90.3027 145 145 145
1.1672 -7.00349 -87.7145 253 253 254
-0.306433 -10.2758 -90.0181 54 97 70
-6.50233 -4.78583 -90.2428 162 161 163
-11.7333 15.7382 -90.5074 168 172 175
-4.96719 -2.16754 -90.3051 114 115 118
-20.0136 6.57818 -90.4421 193 202 202
-8.78942 -7.34774 -90.3197 151 152 152
-18.0065 0.0867244 -90.3629 187 195 197
-4.91656 -10.5603 -89.3541 112 23 43
0.258956 -13.5265 -89.5037 204 196 197
-1.64936 9.55385 -87.561 233 238 235
-5.94017 -4.17869 -90.3342 159 160 162
-18.5257 5.69743 -90.3991 196 202 204
-22.9804 18.9517 -90.5637 171 172 176
-10.5068 15.0411 -90.3349 167 168 172
0.320739 -3.07674 -90.2702 30 36 52
-20.454 0.903908 -90.4054 195 201 203
0.00439928 16.2194 -87.4211 218 220 214
-11.0776 -10.7775 -90.3715 150 149 153
-2.85505 0.546828 -90.3151 141 141 143
-17.137 2.75143 -90.5417 188 196 197
-2.63583 1.05061 -90.3699 126 124 126
-7.21521 10.0546 -90.3814 140 139 141
-8.16126 1.18174 -90.4188 145 144 146
-2.1617 9.15153 -87.5665 228 233 231
-18.6082 23.7972 -90.4954 152 148 144
-14.7238 -3.62305 -90.344 155 155 157
-8.35413 -7.05705 -90.3368 155 156 158
-3.55892 -1.06994 -90.3509 107 111 113
-20.7047 10.6279 -90.5215 172 175 175
-0.477455 21.8979 -90.3273 215 212 204
-1.41237 -10.3396 -90.0738 121 123 125
-0.900785 25.8187 -90.4158 233 232 228
1.67081 11.0646 -87.4175 219 220 216
-20.0474 6.30297 -90.4055 190 199 200
-7.59679 -4.00109 -90.3385 156 156 158
-18.192 3.97359 -90.4321 190 198 199
-10.9116 19.0825 -90.2706 138 138 138
-4.53576 0.810954 -90.3539 143 144 147
-21.9509 14.9831 -90.4583 169 174 174
4.04015 -13.9195 -89.9413 171 169 174
-15.0788 25.3902 -90.3325 158 158 159
-4.8723 -0.11613 -90.321 146 147 149
-17.1436 6.26568 -90.56 155 163 162
-24.9408 22.5665 -90.3137 168 171 172
-11.3327 13.0565 -90.4055 167 173 173
-3.08425 26.1221 -90.2863 54 64 81
-6.40856 19.8223 -87.6587 229 234 232
-0.472271 9.09249 -87.5411 235 241 240
-4.97333 -5.54946 -90.3121 148 147 151
-13.2108 6.40702 -90.4436 173 178 176
-3.18368 -13.4535 -89.964 55 45 51
-20.6236 15.5089 -90.3542 168 173 172
-13.5863 -1.4747 -90.4165 153 154 156
-5.6266 -2.86723 -90.3472 143 143 145
-14.8791 -3.65154 -90.3543 155 155 156
-12.7188 -1.73304 -90.3202 155 157 160
-11.649 -10.7487 -90.4213 152 150 155
-11.0604 10.5276 -90.5645 170 174 175
-0.538634 -12.1148 -89.9687 44 66 68
-14.9982 0.608078 -90.3616 167 175 178
-20.8002 9.54372 -90.3892 175 178 177
-4.17547 -8.71373 -90.3181 60 66 81
-16.9127 4.34785 -90.3848 185 191 194
-1.86421 21.504 -87.4507 219 219 213
2.82317 -1.87292 -90.2453 129 126 125
-20.7357 19.3427 -90.3116 167 171 170
-5.94081 -8.62064 -90.303 141 140 143
-8.52334 23.2091 -87.5069 216 218 226
-12.3794 22.9322 -90.5022 147 148 149
0.0258801 -0.360929 -90.3164 164 162 159
1.15191 -11.8177 -89.5644 197 207 215
1.43843 11.1908 -87.4558 224 229 224
-21.0595 22.5811 -90.4412 164 160 165
-10.8753 22.8381 -90.5116 165 166 167
-8.39148 9.00157 -90.3755 156 156 161
-17.9632 11.3762 -90.4365 170 174 173
1.53139 -11.8356 -89.5594 221 214 214
-19.3419 -4.29748 -90.3532 184 191 194
-14.0929 -8.65922 -90.4475 152 152 154
-4.23286 3.15787 -90.3629 139 138 143
-5.7408 23.7601 -87.6645 231 238 234
-20.6795 -1.27486 -90.4042 180 188 191
-16.4588 6.41987 -90.4019 169 172 171
-8.18791 -0.685447 -90.3549 150 150 155
-11.8402 18.5096 -90.3284 142 141 140
2.62397 0.423901 -90.2564 134 133 137
-16.6934 -2.48992 -90.4411 173 181 182
-0.929324 -10.4116 -90.0123 112 112 112
-6.47373 17.8943 -87.5283 218 217 216
-19.276 12.9662 -90.4238 167 174 173
-5.79415 19.5573 -87.6043 229 236 234
-2.9138 18.61 -87.5364 233 233 231
-7.57481 -4.78647 -90.3646 159 158 160
2.91627 -3.66812 -90.1929 115 122 126
-9.19108 12.5699 -90.294 166 168 172
0.467808 -11.9014 -89.551 239 239 245
-16.1625 -10.1125 -90.3821 174 172 168
-15.2691 -2.16336 -90.3444 157 157 159
-24.7377 21.2197 -90.3103 170 172 172
-2.81858 11.0508 -87.5188 226 229 227
0.531912 -8.92139 -90.0913 91 121 120
-7.29412 16.1943 -90.4347 183 183 153
-6.96897 10.725 -90.3708 145 144 144
-12.9125 16.2043 -90.5177 152 151 153
-13.8091 -11.8386 -90.35 160 158 159
-4.42941 8.29294 -90.3286 122 121 119
-6.90491 13.2449 -90.3009 161 165 166
-11.1957 12.0954 -90.3824 163 169 169
-12.0216 12.7842 -90.5788 163 168 170
-22.0723 21.7539 -90.4048 196 201 202
-15.1807 14.6947 -90.3919 124 133 132
-0.791578 -4.04965 -90.2722 23 28 42
-14.4967 17.1783 -90.3729 29 36 55
-16.8151 -14.5282 -90.2993 170 174 176
-18.9581 13.5048 -90.4703 164 169 167
-3.13801 17.7659 -87.4875 234 236 233
1.32912 8.62622 -87.4795 232 239 239
-20.1289 21.565 -90.3848 184 181 176
-14.4156 -7.93311 -90.5661 155 155 158
-20.864 14.0079 -90.4897 169 174 174
-20.9138 8.08152 -90.5393 185 191 192
-6.99245 2.39219 -90.4205 144 142 145
-16.5805 22.7226 -90.4792 29 32 41
-17.8969 -13.0167 -90.2987 184 188 186
-14.8988 4.88265 -90.3705 175 182 182
-14.1834 19.8416 -90.4994 146 144 143
-16.2396 10.157 -90.5178 148 146 146
1.19427 -13.6222 -89.8953 188 180 178
-10.4676 -9.51281 -90.3589 148 147 150
-17.4481 6.74716 -90.4485 180 185 188
-18.7447 -0.370619 -90.3581 194 200 203
-16.8834 -6.50268 -90.4211 160 160 163
-19.191 4.80068 -90.6158 177 185 184
-14.1902 10.6769 -88.9578 57 49 60
-7.1252 18.3558 -87.2464 158 159 168
-3.63919 -13.0216 -90.0771 18 15 23
-16.2091 1.28067 -90.395 183 191 193
-5.00547 20.2769 -87.5972 232 237 235
1.37866 -9.9868 -89.2902 218 226 228
-5.50786 17.1632 -87.4854 224 226 222
-17.0733 -9.35122 -90.3946 175 171 165
2.79606 -12.2429 -89.9151 151 150 153
-4.50363 -5.49193 -90.2308 153 153 155
-8.0653 14.0868 -90.4796 164 167 167
-15.5876 5.45747 -90.3311 158 162 164
-6.90733 10.5516 -90.3962 153 152 154
-4.4669 -6.83715 -90.2553 145 143 146
-2.84193 3.79645 -90.387 143 141 143
-18.3519 4.8655 -90.5154 191 200 200
-16.9331 7.27775 -90.5039 166 170 168
-9.99527 18.2153 -90.4567 140 140 138
0.782931 -2.89199 -90.2378 66 68 76
-15.0019 13.6133 -90.5331 175 180 176
-16.3368 -6.22079 -90.4132 155 154 157
-9.2947 19.4363 -90.3779 144 145 144
-13.0094 17.9543 -90.3996 175 177 178
-12.9943 -5.01221 -90.3597 154 154 159
-2.56436 -13.3144 -90.076 41 37 47
-4.53543 -1.64781 -90.2836 132 132 139
-14.6722 5.78155 -90.4671 185 188 188
-20.1174 -4.68343 -90.4014 185 193 194
0.280065 22.3355 -90.3503 219 216 208
-2.6168 9.18025 -87.4916 225 226 224
-5.79921 18.1337 -87.5096 228 233 232
-19.8844 18.8102 -90.3947 164 168 167
-2.85104 -13.5935 -90.0046 45 25 35
-22.2268 12.2444 -90.3731 171 174 174
0.536813 -14.34 -89.8502 184 166 143
-21.9492 12.2052 -90.3978 173 175 176
-11.5365 -4.44634 -90.331 156 156 158
-19.7079 3.62306 -90.4088 192 200 201
-23.4198 13.237 -90.5332 169 172 172
-22.8688 21.47 -90.3242 171 174 175
-4.85418 -6.21408 -90.3218 149 149 153
-20.3366 5.42243 -90.4361 199 205 205
-21.2997 18.1553 -90.4791 170 175 174
-7.13944 23.7674 -87.6462 232 238 236
-7.02992 -13.518 -90.2103 145 148 151
0.490932 12.3307 -87.4897 227 231 229
-12.3495 -11.875 -90.3797 152 151 154
-0.234603 18.2712 -87.3149 156 157 174
-7.7081 22.469 -87.6579 226 230 227
0.553206 19.6475 -90.3741 211 208 200
-12.8279 12.9629 -90.4846 144 143 143
-8.46863 22.9935 -90.4413 128 120 121
-14.2269 13.6703 -90.5301 154 154 159
-4.48653 -12.7869 -90.1079 16 13 20
0.215944 16.2475 -87.2615 196 201 210
-16.7827 3.61579 -90.6194 173 181 183
-7.17977 -14.633 -90.2385 119 119 125
-2.13579 16.9694 -87.4918 231 236 233
-16.7772 -3.86508 -90.3729 157 156 158
-10.6979 24.2136 -90.3717 153 151 150
-14.6875 -4.25059 -90.3816 151 149 152
-19.8009 4.03649 -90.4866 196 202 203
-12.2384 -12.6259 -90.3754 147 146 149
-9.28348 11.4087 -90.4233 167 174 174
-12.1612 8.21223 -90.3319 166 170 170
-17.2167 -7.79619 -90.4944 170 169 168
-19.7863 0.211222 -90.4906 190 196 196
-3.11945 -7.37378 -89.1831 206 210 104
-5.76122 -7.96486 -90.2635 147 146 149
-18.8372 -7.76283 -90.4333 169 168 168
-10.0361 19.0525 -90.4567 146 146 148
-5.89472 -6.12315 -90.3803 155 154 157
-7.01135 22.7306 -87.5983 228 234 231
-12.8023 12.3429 -90.3789 92 100 106
0.987185 -1.52026 -90.2916 156 154 150
-11.5943 14.9844 -90.4342 168 170 174
1.18749 -13.0425 -89.9037 182 174 158
-20.7754 18.7777 -90.4486 175 176 174
-10.8296 22.1016 -90.2683 147 147 147
-4.57436 24.0193 -87.5663 234 234 232
-21.1902 22.311 -90.3716 170 170 171
-12.2522 13.7846 -90.4914 160 166 166
-18.8619 -9.16812 -90.3925 169 169 165
-9.40685 3.83343 -90.3215 60 57 66
-4.85374 -4.20376 -90.2722 150 147 145
-5.70115 3.46374 -90.3431 137 135 140
-3.95376 -7.96599 -90.217 124 120 125
-21.3199 23.5071 -90.3235 128 128 128
-24.4667 23.0122 -90.4111 168 171 173
-7.86925 21.0322 -87.4699 163 178 187
-12.4666 20.1599 -90.3165 144 143 143
-6.55131 22.2298 -87.525 230 236 234
-16.1385 1.05299 -90.3246 181 191 193
-18.0596 3.87794 -90.5845 146 146 148
-10.0169 23.5774 -87.521 231 232 230
-20.5322 0.912101 -90.3766 195 201 203
-11.4139 8.12803 -90.3153 169 175 176
-8.65959 19.6524 -90.2961 159 163 159
-12.0113 13.1059 -90.5606 164 169 171
-13.7219 16.4326 -90.2688 30 34 52
-6.80249 14.7516 -90.3121 193 185 154
3.28793 -11.449 -90.036 152 154 156
-7.00162 15.6813 -90.4548 177 167 151
0.52154 -8.13842 -87.7023 239 240 243
-4.82101 13.9244 -87.5871 225 224 222
1.5013 -9.61321 -89.8637 93 123 120
-12.1729 3.94382 -90.4423 28 34 49
0.799167 -8.70516 -90.0679 159 164 171
-11.9037 20.8585 -90.33 150 150 152
-14.8962 -8.70282 -90.3803 157 155 157
-1.22775 -6.60123 -90.2064 20 22 33
-21.0404 10.152 -90.4764 172 177 176
3.8405 -13.1947 -89.946 169 168 172
-20.1168 20.2352 -90.5148 165 166 168
-15.3704 25.6448 -90.4153 156 156 156
-7.26332 22.141 -87.6247 227 230 226
0.974854 -4.16671 -90.2706 39 40 49
-6.58464 -11.9192 -90.1989 25 28 38
-20.1422 0.603976 -90.6373 160 160 163
-16.2405 13.0238 -90.5123 146 161 170
-19.3884 6.16036 -90.4811 187 193 193
0.335047 -0.899345 -90.3016 158 157 156
-8.0872 12.1186 -90.3311 163 166 167
0.574789 2.45881 -90.3311 189 185 180
-2.90522 10.3135 -87.5465 225 227 224
-6.60015 22.3578 -87.5153 230 235 233
-22.07 20.4675 -90.4735 174 176 179
-19.2129 3.6696 -90.3697 193 200 202
-0.756835 0.624984 -90.2963 161 159 158
-10.5472 -6.29929 -90.3591 152 151 154
-4.50531 21.1509 -87.4872 238 240 237
-19.0721 -3.26464 -90.3289 189 193 195
-15.7441 -1.11597 -90.3481 164 171 174
-7.7366 19.8308 -87.048 137 135 147
-4.22411 -8.44731 -90.3804 126 125 126
-9.72849 23.1923 -90.3034 162 166 162
-18.7197 -5.31638 -90.5286 168 174 174
-14.7258 -7.56563 -90.3863 156 156 158
-5.63399 -8.88502 -90.2627 138 135 140
-15.8073 -7.96372 -90.3164 167 166 167
-21.8548 24.7228 -90.4006 149 147 144
-17.0462 13.3547 -90.5538 192 196 194
-12.7549 15.9942 -90.3499 161 166 169
-4.82382 15.1415 -87.5312 224 228 223
-19.1009 15.7261 -90.5199 166 171 169
-18.542 -12.3203 -90.3828 181 182 184
-0.0243208 -8.95573 -88.3876 150 143 78
-15.0528 25.2945 -90.4813 173 176 174
-16.4922 -9.77022 -90.3665 173 171 168
-14.0801 24.0127 -90.3755 155 155 157
-9.11047 13.4471 -90.3144 165 169 168
-11.3385 12.9563 -90.3388 167 173 173
-18.2306 -7.80706 -90.4488 176 161 160
-12.9943 22.547 -90.4246 153 153 154
-1.52608 23.5527 -90.4332 221 215 214
-14.1246 2.45966 -90.3857 186 193 195
-14.8435 25.1745 -90.5115 162 166 160
0.766152 14.8344 -86.9851 171 173 184
-1.93519 -6.84347 -90.1884 26 32 43
0.0810771 9.9154 -87.5065 233 239 239
-0.498913 24.7251 -90.5195 226 226 221
-8.30516 7.75091 -90.3741 145 145 146
-14.197 -12.7535 -90.3591 181 180 180
-13.3239 -3.04035 -90.4169 157 158 159
-18.0842 -5.47624 -90.3374 157 159 161
-17.5047 9.63454 -90.5434 172 174 170
-1.3683 -7.94671 -88.3861 146 138 87
-5.73565 16.5605 -87.5763 225 224 221
-16.5108 10.6857 -90.573 204 208 205
-18.6676 7.10062 -90.3573 183 189 189
-12.1371 -11.2157 -90.4243 151 151 155
-16.1861 7.25143 -90.4807 153 156 156
-7.6486 -1.21744 -90.4067 141 143 147
-16.5986 -8.37989 -90.4391 162 161 159
-18.2267 -1.47833 -90.4517 193 200 202
-5.66276 17.9743 -87.4976 226 232 230
-14.5577 -5.97719 -90.3262 155 153 156
-8.38844 9.93145 -90.3305 154 155 159
-11.2388 -14.3579 -90.3344 154 158 161
-1.01183 0.120635 -90.4374 155 155 155
0.59948 7.37892 -87.5169 223 231 237
-21.7181 14.278 -90.3817 169 173 173
-22.3024 12.2816 -90.4102 171 174 174
-19.1578 8.3689 -90.497 179 183 182
0.87341 10.1856 -87.4805 227 233 231
-24.0162 21.4397 -90.296 171 174 174
-12.5596 3.82192 -90.4428 25 31 45
-0.513632 7.96742 -87.544 234 239 239
-5.26676 -1.70584 -90.3884 144 144 147
-2.30714 -12.736 -89.7261 135 60 83
-11.277 -0.14012 -90.3669 156 155 159
-2.20648 20.4441 -87.5733 227 233 229
-11.9787 -14.638 -90.2957 155 159 162
-22.8769 19.7395 -90.4627 170 173 174
-1.68808 16.2045 -87.5106 231 236 234
-5.10769 22.7852 -87.5106 238 240 239
1.35033 -4.53811 -90.2416 87 91 94
-17.037 22.6491 -90.4298 29 31 39
-17.1341 -4.56737 -90.3944 143 143 145
-3.47777 24.3806 -87.573 227 234 232
2.74867 -8.76777 -89.6442 138 146 153
-4.58953 25.116 -87.4738 232 238 237
-18.7515 23.0825 -90.4524 46 48 58
-16.5549 5.90973 -90.3857 171 179 181
-16.314 -13.5556 -90.4367 173 175 178
-0.241023 -3.86032 -90.2069 25 30 46
-7.11119 19.3915 -90.4375 75 79 85
-15.5352 20.4536 -90.5626 140 143 145
-12.9183 -7.17493 -90.3529 152 152 154
2.87785 -9.77893 -90.0417 198 199 200
-14.1853 19.0825 -90.3709 143 142 142
0.632852 -8.81404 -90.0524 104 134 139
-2.25783 9.98933 -87.5133 230 236 234
-18.7586 17.463 -90.3756 169 174 173
-12.6802 13.6651 -90.4474 163 169 169
-12.0368 22.3031 -90.4186 149 148 151
-9.77578 2.79759 -89.4893 125 42 59
-17.121 0.440499 -90.3904 182 191 193
1.13139 9.78047 -87.4889 227 235 233
-19.388 -6.10326 -90.373 169 175 177
-9.1957 8.18843 -90.3869 155 154 159
-17.4146 2.87484 -90.5677 188 195 197
-17.4062 24.7287 -90.3733 154 154 154
-17.6392 -7.19104 -90.373 169 167 169
-15.2193 18.6545 -90.3041 162 164 167
-2.863 10.4869 -87.5462 225 227 224
-21.1234 2.11317 -90.5082 192 198 201
-21.913 14.364 -90.5072 168 174 174
-10.0987 17.4703 -90.4168 139 138 137
-3.76046 23.65 -87.6142 231 237 235
-20.331 24.6516 -90.3785 154 153 150
-12.9778 14.6255 -90.4772 166 172 171
-3.40667 5.22429 -90.2843 154 152 152
-17.5749 8.29327 -90.6151 183 187 184
-8.47321 23.6031 -87.6012 223 227 228
-5.97744 -2.22366 -90.2898 144 145 147
-12.0956 -6.92252 -90.334 151 150 153
-5.90657 -9.06574 -90.1393 140 138 142
-11.0238 4.87701 -90.3457 109 115 128
1.27156 -6.13137 -87.7471 186 177 183
-20.5832 9.80876 -90.4316 175 180 179
-6.31941 21.4912 -87.5755 232 237 235
-7.90173 11.5374 -90.2896 163 164 167
-18.6689 24.9485 -90.3296 146 146 144
-11.1683 13.8045 -90.4379 167 170 174
-3.20614 8.56722 -87.5547 226 227 224
-14.2554 -5.38082 -90.3805 154 154 157
-11.176 24.6319 -90.3883 149 146 145
-1.00829 -9.62044 -88.35 230 227 138
-11.8829 22.7451 -90.3584 149 149 151
-24.2507 17.3023 -90.3322 160 164 165
-15.332 3.15027 -90.376 186 194 195
-17.1142 24.946 -90.4391 153 153 153
0.760987 3.84808 -88.1921 208 214 219
-4.23454 -10.4108 -89.2865 129 30 52
-0.0375671 26.264 -90.4693 225 223 219
-4.58676 -5.65725 -90.238 150 153 156
-7.69153 16.6441 -90.3737 164 166 162
-15.0521 19.9561 -90.4939 140 140 139
-22.4476 7.05358 -90.3768 194 201 203
-5.30887 -7.62849 -90.2583 149 148 152
-4.45114 -12.7578 -90.062 17 13 20
-11.4206 -12.3999 -90.2979 149 148 151
-4.43741 -9.76186 -89.3927 71 32 46
-2.29154 24.3845 -87.327 164 164 177
1.95578 -9.1495 -89.3952 183 218 224
-13.0142 -7.82288 -90.3842 147 147 149
-7.39839 9.13373 -90.3562 144 144 144
-0.0666493 -1.86022 -90.2849 115 121 131
-4.74039 13.8935 -87.5121 225 224 222
0.403063 -3.93909 -90.2647 28 34 48
-3.02007 -14.5461 -90.1171 64 150 151
-15.5911 5.18959 -90.4014 162 165 169
-4.67325 -11.2159 -90.1609 42 32 42
-12.892 18.796 -90.3562 149 148 146
0.754377 11.1893 -87.5229 228 237 235
1.27614 -7.79825 -87.7273 226 230 235
-15.5787 9.62339 -88.528 149 99 108
3.1411 -3.98232 -90.1883 89 114 113
-21.6353 2.62843 -90.46 193 199 200
-12.5533 -3.97111 -90.4191 150 148 148
-3.25561 1.90828 -90.3104 133 131 134
-22.9737 12.7703 -90.4184 169 174 173
-13.6354 -0.938805 -90.4839 153 153 156
-11.1131 -3.85056 -90.379 158 158 160
-17.4233 1.46479 -90.5966 32 32 32
0.474106 13.7873 -87.497 223 226 219
-14.107 -8.17671 -90.3866 156 155 158
1.29219 -4.63395 -90.3274 49 50 59
-21.2401 19.9478 -90.4452 188 191 190
-12.6636 7.27317 -90.3626 168 174 172
-7.97926 6.18095 -90.3371 142 142 143
-0.445635 26.1493 -90.492 222 221 217
-13.1212 -7.28012 -90.3649 153 153 155
-17.8302 -11.2951 -90.4076 186 185 183
-11.1204 24.8531 -90.4891 149 148 146
0.680381 -9.03892 -89.9679 71 137 156
-3.23034 14.567 -87.5063 233 238 235
-3.03498 13.2824 -87.4684 230 238 235
-2.77451 -3.99864 -90.2323 131 131 133
-21.9533 18.6827 -90.4834 174 176 175
-2.87238 6.55444 -87.5479 212 212 210
-5.53738 -6.47494 -90.2571 151 151 153
-5.48838 -4.66585 -90.3341 161 157 157
-13.712 6.62072 -90.4854 173 178 178
-5.28744 22.8926 -87.5915 236 239 237
-3.99839 -10.267 -89.2269 105 36 56
-21.7663 9.31682 -90.5636 177 182 185
-13.5983 25.6807 -90.5308 153 153 156
-13.4518 1.44642 -90.2977 149 158 160
-22.4727 11.8679 -90.3755 174 177 176
-11.1802 8.07529 -90.3892 168 173 174
-8.82442 11.6243 -90.3163 165 170 170
-0.837563 -13.0437 -89.0062 172 170 183
-16.3768 3.32848 -90.3728 183 191 193
-8.62675 -11.9453 -90.2879 134 134 139
-2.86914 7.70444 -87.5727 229 233 230
-1.0468 -4.7781 -90.1955 29 35 47
-18.2479 18.1814 -90.4094 166 169 168
1.7728 -7.23769 -87.8195 223 223 227
-17.9996 7.80818 -90.3685 167 170 167
-2.14234 21.5033 -87.456 221 223 217
-11.8722 14.6306 -90.4336 166 168 172
1.51153 10.4141 -87.5639 226 234 233
-14.4092 -1.61332 -90.387 154 153 156
-19.8191 17.8857 -90.4569 163 168 166
-12.0032 22.0389 -90.4695 148 149 151
-0.384271 7.95018 -87.5558 234 240 239
-18.5465 -9.1441 -90.357 183 164 162
-15.2821 11.6426 -90.3976 47 59 75
-10.4809 -5.66707 -90.3741 151 149 153
1.96041 7.01095 -87.5374 227 232 232
-19.6958 15.3603 -90.3805 166 171 169
-19.9044 23.9946 -90.4362 158 155 151
-17.6628 -7.27192 -90.437 170 168 170
-8.32146 6.30733 -90.4171 141 142 144
-18.0421 23.2097 -90.3435 43 46 54
-8.96913 22.8421 -90.4781 169 168 168
-17.6444 10.7541 -90.4219 177 179 177
-18.4639 11.6704 -90.6193 32 32 32
3.27337 -13.975 -89.9161 168 166 170
-9.18225 15.7149 -90.3827 139 138 136
-15.2777 4.23383 -90.4378 168 174 176
-8.41297 7.7206 -90.4743 146 146 148
-18.9318 25.6882 -90.447 148 147 145
-15.3992 4.19776 -90.5243 168 174 177
-23.0258 23.5722 -90.4511 175 178 180
-11.4461 11.1463 -90.4301 163 166 168
-8.34825 22.2248 -87.2782 183 152 159
-10.0963 9.6843 -90.3259 165 171 171
3.57401 -14.1243 -89.9208 168 166 169
-11.155 19.8182 -90.443 146 146 149
0.274572 -7.68919 -87.727 252 252 254
1.42287 -7.60028 -88.2413 32 32 32
-8.1012 -4.99693 -90.3023 156 156 157
-9.82312 22.4051 -90.4372 170 168 170
-13.7149 0.843125 -90.4592 149 152 156
-15.9903 -14.7285 -90.3015 168 170 174
-14.9671 6.47272 -90.477 173 178 177
2.75405 -3.18077 -90.3092 118 115 114
-18.2577 23.3024 -90.3744 42 45 54
3.48796 -6.51255 -89.0925 160 184 183
-6.49904 16.6412 -87.5126 149 153 165
-7.63283 23.2035 -87.6744 229 237 237
-1.56489 -12.8779 -89.7614 57 54 56
-2.01677 22.0081 -90.3493 115 123 140
-10.1622 -2.49024 -90.3561 157 158 161
-21.6407 14.2811 -90.459 169 173 173
-0.873969 5.64792 -87.5521 159 176 192
-3.1711 -4.83844 -90.3046 130 131 136
-0.160879 5.97053 -87.5105 192 203 202
-15.4628 -8.18909 -90.3838 166 166 166
-6.4611 14.4973 -90.3563 181 170 154
-7.8548 6.03139 -90.4048 141 141 143
-5.45955 0.434648 -90.3255 143 143 146
-21.7574 3.39919 -90.5107 193 201 202
-3.87327 -1.21456 -90.2779 104 105 108
-13.9692 -2.98762 -90.3685 158 158 160
-0.475837 17.9307 -87.5256 209 214 210
-11.0143 -6.4989 -90.2756 152 153 156
-19.7089 18.5605 -90.4343 162 167 165
-0.395098 25.6471 -90.4964 231 230 226
-21.4477 6.57453 -90.4951 195 203 202
-12.1269 10.9856 -89.9284 133 88 106
-20.1914 18.663 -90.3939 164 168 167
-1.52909 25.1875 -90.3806 220 219 212
-21.5227 17.3449 -90.3516 170 173 173
-7.57515 0.318607 -90.3352 146 145 146
-6.50436 17.8113 -87.5949 215 214 211
-11.0234 13.7428 -90.3601 169 170 175
-17.3419 -1.87578 -90.4072 171 176 179
3.89387 -12.9458 -89.8822 169 167 171
-10.4469 14.635 -90.4004 164 171 171
-16.7163 16.793 -90.5179 49 58 71
-20.8147 2.47735 -90.4174 195 200 200
-21.0794 2.16069 -90.401 192 200 202
-17.445 -4.65717 -90.4559 143 143 142
-4.18742 20.4859 -87.5784 235 236 234
-16.2085 5.21333 -90.4061 169 175 178
-0.764617 18.0336 -87.4946 223 228 223
-16.9613 9.90133 -90.4714 150 152 151
-0.47927 -7.3344 -90.0888 17 18 26
-6.93563 14.3348 -90.3351 160 161 156
-8.70325 6.65849 -90.3458 145 143 144
-6.22285 1.2448 -90.374 147 148 149
1.87546 -2.42564 -90.3149 117 112 113
-10.6394 -12.7659 -90.3168 146 145 148
-12.342 -13.1554 -90.3205 160 164 167
-5.57933 5.02366 -90.3365 142 142 142
-17.7063 9.6465 -90.3916 177 179 176
-11.851 13.3333 -90.4257 166 171 172
-19.5368 -0.93719 -90.5609 190 194 197
-12.882 5.79836 -90.4144 172 176 175
-17.0473 4.56396 -90.5388 185 193 195
-19.6408 19.4578 -90.3875 165 170 168
1.05108 -10.6088 -89.978 87 147 144
-16.6668 1.2754 -90.4756 183 192 195
-13.6716 9.64076 -89.4472 126 86 99
-1.96752 22.4296 -87.4647 219 220 217
-14.4594 1.6843 -90.3338 177 186 188
-5.75591 22.4446 -87.5957 232 238 236
-6.55769 -4.66437 -90.2868 162 161 163
-13.7971 4.69073 -90.4541 170 176 175
-14.1086 3.80941 -90.3708 168 174 174
1.70923 -12.2015 -89.8962 185 192 190
-17.6126 -13.7545 -90.388 172 172 176
-21.263 7.58788 -90.4426 199 206 207
-10.1416 20.8231 -90.3734 147 147 147
-0.393891 5.64302 -87.565 121 149 161
-24.0186 19.4287 -90.3868 169 172 171
-15.7569 -14.2723 -90.4127 170 171 175
-7.60293 -0.47698 -90.3805 130 131 133
-8.9261 14.2758 -90.4934 163 166 168
-15.5604 25.7725 -90.5811 153 153 155
-2.61531 3.04146 -90.2966 146 142 142
-0.718958 25.2458 -90.3683 225 224 219
-16.166 11.4988 -90.3923 86 93 109
-20.2898 0.559152 -90.4402 192 199 201
-7.87589 -5.93811 -90.2957 156 156 158
-20.0061 2.50962 -90.3071 199 206 207
-19.9401 6.46743 -90.5963 181 186 186
-7.16047 -14.4863 -90.0972 119 117 124
-4.34615 -7.56508 -90.2179 143 142 143
-4.12033 23.6666 -87.531 234 238 238
-12.3435 25.2339 -90.4313 147 145 145
-6.54203 -3.62792 -90.293 157 155 158
-14.2336 24.4598 -90.3433 157 157 158
-16.6206 3.4006 -90.5075 182 191 192
-6.8574 24.5982 -87.4916 232 238 238
-8.81685 14.2557 -90.4388 162 166 167
-3.86265 11.1066 -87.5547 226 225 223
3.06178 -13.8971 -89.912 167 165 168
-1.69408 3.01895 -90.1229 179 186 191
-9.70612 12.7985 -90.3897 168 170 172
-21.0684 19.5298 -90.3832 183 185 184
-6.35429 1.72939 -90.3297 143 144 145
-23.9689 24.129 -90.3132 170 173 173
3.09516 -9.01606 -90.0206 189 186 188
-15.9899 4.8772 -90.4798 168 176 178
-22.1112 16.6034 -90.3348 172 175 176
-12.4858 25.4403 -90.3424 147 145 146
-16.8749 18.5955 -90.405 168 169 171
-22.8126 17.7017 -90.4219 170 175 175
-0.00048661 25.8697 -90.3439 216 214 209
-4.94051 23.1237 -87.4891 235 235 234
-10.9998 14.9915 -90.5485 124 124 124
-14.0505 16.5746 -90.1372 27 33 46
-12.0292 -13.0474 -90.3579 147 146 149
-14.0514 -3.20758 -90.4423 157 157 159
0.731886 -11.0689 -89.747 110 167 171
-23.6289 18.7461 -90.2929 168 172 171
-15.9318 3.61188 -90.6431 168 176 178
-8.83672 6.58368 -90.3831 143 143 144
1.30911 -13.7508 -89.8809 184 180 178
-10.0658 14.5955 -90.4103 169 171 174
-0.371882 2.62636 -89.1369 189 201 209
-5.17824 22.3789 -87.6165 236 240 239
-10.7731 2.02383 -90.41 138 89 114
-11.5501 25.1813 -90.3137 147 146 145
-0.653643 -10.6769 -90.1262 46 47 53
-10.3646 -3.71332 -90.3731 159 159 161
-5.58377 -9.38592 -90.2493 107 104 107
-12.4594 -3.98435 -90.3293 151 150 151
2.25237 -5.55888 -90.1573 89 119 125
-10.9015 -0.583659 -90.2777 157 158 160
-12.9163 20.8204 -90.3973 160 161 162
-18.9047 17.7438 -90.556 172 172 174
-14.8892 13.7349 -90.5185 172 178 174
-10.1659 11.0667 -90.3642 168 174 174
-21.4053 3.09144 -90.5052 196 202 201
-22.5769 13.3638 -90.4535 169 173 173
3.08885 -9.77096 -90.0426 167 154 152
-4.3741 -10.7164 -89.2722 133 37 55
-23.0835 20.3482 -90.3937 169 174 172
-7.12857 16.3308 -90.5409 140 126 107
-15.4204 19.1942 -90.4177 163 168 169
-0.0898536 -8.93602 -88.4513 191 184 114
-12.6322 13.031 -90.4771 164 170 170
2.60134 -10.1678 -89.9868 182 194 205
-11.8568 -1.54242 -90.3701 157 157 160
-2.03516 8.07176 -87.4965 226 229 228
1.2862 10.103 -87.4835 226 232 229
-5.55988 18.5009 -87.6051 231 237 237
-1.8274 -14.6668 -89.0578 187 216 216
1.572 -13.1073 -89.98 204 199 197
-16.0256 5.25382 -90.4759 170 177 179
0.0824676 22.9524 -90.4193 207 204 196
-21.6122 15.8539 -90.4413 168 173 173
-18.7751 21.6465 -90.3731 34 39 48
-15.027 6.50556 -90.5627 173 178 177
0.437566 16.4954 -90.3195 145 137 142
-13.2514 -15.8085 -90.3897 168 170 168
-13.7621 14.2977 -90.4656 167 171 170
1.21927 -4.13767 -90.2222 83 80 90
-21.0778 4.70909 -90.4471 197 203 203
-17.1129 -9.87667 -90.3788 171 170 168
-10.6592 -4.09226 -90.2966 156 157 160
-12.8512 6.53093 -90.4126 171 177 176
-12.7865 -2.78106 -90.351 159 158 160
-17.5624 3.61305 -90.5138 188 194 197
-14.7143 6.93446 -90.3897 168 173 173
-6.75619 19.1734 -87.5592 229 229 227
-11.8414 11.4195 -90.3322 143 135 137
-9.35179 22.4138 -90.4516 162 166 164
-14.6747 19.264 -90.4882 138 137 139
-12.8257 -0.457168 -90.4998 155 156 160
-5.62084 -13.6592 -88.7509 63 48 66
-17.4514 3.99514 -90.5756 172 177 180
-22.2659 18.1706 -90.3168 171 175 175
-18.4063 6.39192 -90.3946 184 190 190
-20.4575 5.06557 -90.5393 200 205 206
-19.3136 6.76368 -90.3894 180 186 186
1.99595 4.1602 -87.5228 113 124 143
-7.5949 14.306 -90.5413 149 154 151
-15.6432 5.1626 -90.42 162 165 169
-2.86059 11.5525 -87.5322 230 236 234
0.332087 -7.91054 -87.7363 247 246 248
0.971511 -4.64383 -90.2455 24 30 43
-3.49739 -8.35024 -89.3187 207 210 122
-20.1098 1.46968 -90.4087 198 203 204
0.0708105 -7.73334 -87.7038 250 249 251
-19.3885 18.6456 -90.4905 170 176 174
-11.9228 14.7333 -90.4771 166 168 172
-1.39228 6.32002 -87.5311 230 235 235
-15.627 -6.64251 -90.4587 157 157 159
-3.94986 3.15532 -90.3235 137 136 141
-9.7979 17.47 -90.3724 142 141 139
-16.198 3.3854 -90.5115 183 191 193
-5.97081 -13.9116 -90.1417 86 68 75
-1.33497 -5.17556 -90.2332 109 107 111
-5.10767 9.57214 -90.2766 136 136 149
-5.34999 -6.68267 -90.2856 149 149 150
-11.9167 10.6613 -89.9863 102 55 60
-16.7948 4.28287 -90.4494 185 191 194
-18.8567 3.21731 -90.4337 191 197 200
-3.05734 -13.5559 -89.9902 69 51 53
-18.1369 16.9037 -90.3743 169 174 172
-8.18411 -3.17526 -90.3756 154 154 158
-9.34235 0.708576 -90.4064 155 151 154
-3.3462 24.2626 -87.5036 227 233 230
-18.5159 24.935 -90.2919 146 146 144
-10.649 -4.45411 -90.3652 156 155 159
-7.09881 20.1653 -87.6202 220 227 225
-18.3111 0.201017 -90.4063 188 195 196
-6.34806 -10.0021 -90.195 137 138 140
-19.3851 4.62397 -90.5152 190 198 197
-14.3068 7.0962 -90.3694 169 175 174
-13.733 18.8254 -90.5079 147 145 144
-17.9909 5.70386 -90.5209 182 187 187
-19.2256 0.0533121 -90.5157 193 200 201
-25.47 25.4717 -90.3876 170 172 170
-19.1956 7.50437 -90.4451 178 182 183
-20.5631 6.01403 -90.4064 198 204 204
-1.7339 -10.843 -90.0731 90 95 100
-1.41056 15.2995 -87.5142 230 236 234
-17.4504 -11.5631 -90.3549 175 178 176
-20.2783 11.8266 -90.4496 175 179 178
0.392102 5.63497 -87.4971 90 113 138
-0.224917 -7.363 -87.672 136 145 170
-17.127 -16.1302 -90.2756 173 178 181
-6.25647 17.3492 -90.4519 50 54 65
0.612746 14.4464 -87.4773 203 205 204
-4.58534 20.3702 -87.6085 235 238 237
-14.8788 -12.4051 -90.4991 146 143 137
-10.2131 20.7963 -90.4047 147 147 147
-16.296 8.88045 -90.5051 180 183 182
-12.9586 12.6253 -90.4172 142 141 145
-6.20367 19.1809 -87.5766 227 232 229
-22.846 10.3364 -90.4944 175 179 181
-18.5162 -3.51215 -90.381 178 180 179
-13.8012 8.26109 -90.4732 173 173 173
-15.5999 21.1144 -89.7105 89 103 115
-17.243 -7.80222 -90.3456 170 169 168
-14.9671 9.14019 -89.1766 156 66 84
-10.0102 19.5126 -90.3496 158 159 157
-1.75973 17.2266 -87.5362 227 235 232
-14.8435 -2.98086 -90.4033 155 155 157
-4.90257 -13.5042 -88.6319 169 81 124
0.907021 -6.474 -87.6809 253 253 254
-13.3332 4.43443 -90.3517 174 180 179
-6.05365 17.2237 -90.2918 53 65 76
-2.54414 26.3102 -90.3303 229 218 219
-21.7232 22.8624 -90.3596 168 172 172
-17.969 24.9191 -90.3608 156 156 156
-8.92308 15.4787 -90.3304 161 166 166
-4.09177 -1.66785 -90.3602 102 105 113
-18.2325 0.925523 -90.5228 190 198 200
-20.9011 19.0416 -90.3397 176 177 175
-0.0134494 -9.49922 -89.9838 75 128 132
-17.2947 17.4362 -90.476 113 113 127
-11.1467 21.8045 -90.3809 140 139 138
-3.93284 -4.73118 -90.4076 143 143 146
-15.9966 -3.648 -90.3815 161 161 162
-8.17493 21.9354 -87.3749 210 210 211
-19.4577 16.4874 -90.4811 166 171 169
1.84287 -12.8617 -89.9486 161 149 147
-10.608 -0.808964 -90.3626 153 154 158
-15.0745 23.3223 -90.3561 165 152 149
-4.34534 19.5387 -87.515 227 233 231
-14.8305 1.46548 -90.3669 182 191 193
-16.0256 6.00039 -90.5434 168 173 172
-8.96235 17.4156 -90.3061 164 169 167
-8.28326 24.0287 -87.6141 229 230 227
-9.59996 17.549 -90.4037 141 141 138
-22.2906 6.34453 -90.4466 197 205 204
-16.7092 23.5287 -90.4675 86 96 109
-1.40707 24.2406 -90.3267 215 212 205
-21.2719 22.457 -90.3473 170 171 172
-19.9042 14.7848 -90.4612 167 171 172
-10.0438 23.2111 -90.3253 170 170 171
-9.49757 20.1835 -90.3311 146 145 146
-17.1521 22.5134 -90.5633 32 35 43
-12.0922 17.498 -90.3702 167 169 171
-9.71117 16.0936 -90.5188 140 139 140
-0.61502 -13.7766 -89.5092 178 182 195
-0.770307 8.18882 -87.5266 234 239 240
-8.5998 19.0488 -90.3643 162 158 162
-9.11546 0.145564 -90.2923 153 151 156
-12.7233 15.5744 -90.4506 167 168 171
-9.77819 -2.08502 -90.3833 156 157 160
-1.22962 0.830739 -90.4314 164 163 160
-8.99539 1.08061 -90.4123 148 147 148
-11.1919 11.2978 -90.3205 162 167 168
-8.17159 24.3272 -87.5431 227 231 227
-18.4382 3.38576 -90.3773 191 199 200
-18.4798 7.95536 -90.4623 177 181 178
-17.5079 18.8194 -90.4919 167 169 172
0.68533 15.1776 -87.2606 174 177 186
-17.2317 10.6121 -90.5593 110 108 109
-18.9417 21.6305 -90.3833 26 27 34
-22.863 18.9257 -90.3585 171 175 174
-5.10486 22.0228 -87.5374 238 240 239
-15.0052 14.0599 -90.4971 168 173 169
-4.56074 -5.20863 -90.284 153 151 153
-0.179758 23.1863 -90.341 208 209 205
-0.484037 21.7626 -90.3324 215 212 204
-18.5127 -9.44705 -90.4546 182 175 174
1.78401 -12.3691 -89.9409 219 217 218
-19.2186 20.326 -90.2813 141 132 138
-10.2197 3.9246 -90.3959 25 27 44
-20.2695 -1.00279 -90.3936 183 190 193
-10.7532 1.0116 -90.3482 146 134 139
-11.3073 3.72701 -90.4534 20 21 34
-16.2165 7.76522 -90.503 165 165 168
-10.0475 -14.7878 -90.097 137 137 142
-11.5323 19.2063 -90.381 141 140 141
-24.4898 16.5507 -90.4121 170 171 170
-20.1817 2.26055 -90.453 194 199 201
-0.490246 -2.69051 -90.2694 31 35 50
-11.2221 17.1123 -90.3804 142 143 142
-16.5961 6.80198 -90.3865 169 173 173
-16.9021 -9.96292 -90.4685 168 167 167
-22.3624 18.1389 -90.3771 171 175 175
-14.548 24.2239 -90.3158 159 159 160
-9.44399 13.2955 -90.4543 163 169 170
-21.2867 12.9459 -90.4627 173 176 175
-10.4834 21.9781 -90.4 149 148 149
-5.0154 -6.66824 -90.2557 149 149 152
-9.27742 14.8391 -90.4024 162 165 167
0.102694 2.10677 -90.3735 166 161 154
-18.4658 -4.23836 -88.9214 159 157 156
-0.0321078 -12.1869 -89.5539 228 228 233
-16.9323 -4.11925 -90.4643 161 160 161
-3.01947 -14.2018 -90.0297 37 96 97
-1.46072 -9.25781 -88.4153 236 238 148
-19.3991 20.7779 -90.4305 161 153 152
-17.9889 2.50802 -90.6818 163 165 167
-0.842803 11.0204 -87.5098 232 240 240
-15.9018 23.527 -90.4757 152 152 153
-4.76169 22.2513 -87.6034 239 240 238
-9.03179 17.2568 -90.329 144 142 141
-19.9632 0.772268 -90.3862 197 201 202
-10.0249 24.0253 -87.5777 231 235 232
-13.7078 16.7315 -90.5206 48 48 55
-4.4137 15.7108 -87.54 227 233 230
-24.9699 24.2223 -90.3625 170 171 173
-8.61829 20.0909 -90.3712 158 161 160
-16.3538 9.70539 -90.5507 193 199 195
-9.76668 12.1226 -90.4489 166 172 173
-14.1349 -4.43421 -90.4282 153 153 154
3.94167 -13.931 -89.9853 171 170 175
-15.9667 8.06878 -90.3847 174 180 178
-16.5815 -10.6492 -90.3757 179 180 182
-11.5055 19.5059 -90.3746 139 139 139
-17.8641 18.7578 -90.3924 165 169 171
-2.83773 -14.7738 -87.5586 102 154 162
-21.4224 16.6921 -90.3162 169 171 172
2.18986 -11.5578 -90.0208 155 146 146
-14.2572 -7.75974 -90.3549 158 160 160
-8.06529 8.28045 -90.3447 144 144 145
-3.61533 6.63742 -90.265 96 93 97
-7.78866 -4.07735 -90.2924 156 155 158
0.401076 14.2567 -87.4929 224 228 222
-8.1183 -6.59307 -90.2697 156 156 159
-22.8764 12.7634 -90.3736 170 175 174
-12.953 2.23982 -90.3245 147 145 145
0.516927 18.694 -90.3247 214 211 202
-3.52363 9.18615 -87.5426 229 229 227
-17.7327 12.7304 -90.563 162 165 163
-2.50067 21.9363 -87.4612 221 221 219
1.19499 14.9911 -90.3577 197 189 190
-4.23385 17.4258 -87.4788 232 238 238
-9.97348 12.666 -90.4325 168 171 173
-13.9537 22.4772 -90.3589 169 168 167
-6.75662 17.7716 -90.4783 97 97 98
-15.6837 -9.1573 -90.4018 147 149 148
-7.91864 -10.2799 -90.3297 150 148 152
-11.2796 6.42976 -90.3637 165 171 171
-9.89741 18.3526 -90.3415 139 139 137
-14.4233 7.80771 -90.454 167 170 169
-15.047 11.4228 -90.4102 42 52 67
-11.7051 -0.176785 -90.4193 157 157 159
-21.8344 16.6156 -90.4811 171 173 175
-18.637 7.61461 -90.3851 180 186 186
-16.9442 24.0774 -90.5393 154 159 153
1.14472 6.64101 -87.4966 226 236 237
-8.31797 12.4998 -90.3666 164 168 170
-12.5085 18.4229 -90.3561 146 146 146
-15.091 19.8326 -90.3429 140 140 141
-9.20349 5.18103 -90.3767 143 142 142
-4.61427 13.828 -87.5173 224 223 221
-16.968 0.487452 -90.4344 182 190 192
-9.51554 14.1654 -90.5116 187 195 197
-22.9123 19.843 -90.5147 156 158 159
-21.9448 19.4579 -90.46 173 177 176
-13.0513 -12.9327 -90.4359 165 167 171
-18.4154 -1.84701 -89.4748 197 204 207
-18.5252 11.5447 -90.4874 170 174 173
-7.48628 24.512 -87.6415 234 240 240
-9.61628 20.6561 -90.4722 149 148 149
-23.5144 17.4173 -90.3286 167 170 171
-14.5634 25.6548 -90.2962 159 160 161
-6.12235 3.17024 -90.421 139 139 141
-3.00954 17.5517 -87.4787 234 235 233
-15.8492 -7.82232 -90.4668 170 170 169
2.42627 -2.77908 -90.2517 117 115 115
-22.1275 10.4422 -90.3502 180 185 188
-1.66519 26.663 -90.3315 222 221 216
-4.98491 -7.24436 -90.2901 148 147 151
-14.7537 -12.7896 -90.3894 144 146 143
-3.0413 20.3938 -87.4565 230 235 233
-5.20248 -3.65454 -90.3344 152 149 149
-4.57182 23.6918 -87.6331 234 234 232
-18.0264 25.8097 -90.4453 161 160 168
-14.5138 3.1876 -90.4696 177 184 186
1.24928 1.34898 -90.3425 166 165 164
-14.5882 8.43786 -90.357 168 163 166
-2.19169 -1.08262 -90.2656 121 115 119
-4.189 23.6111 -87.6038 234 238 238
-11.3204 15.5675 -90.4783 168 171 174
-12.8167 25.0895 -90.4582 150 148 149
0.860498 -11.9886 -89.6378 196 209 219
-6.68052 7.97538 -90.3595 136 134 135
-15.0138 23.6265 -90.0767 190 150 146
-20.2725 11.4088 -90.3649 177 183 182
-15.3968 7.67209 -90.3994 166 171 171
-4.64826 -2.41274 -90.3488 120 116 118
-5.14198 13.4872 -87.521 225 224 223
-1.85981 14.6609 -87.4486 231 237 235
-14.297 13.6858 -90.3942 167 171 171
-16.6387 10.066 -90.5028 158 158 157
-4.95357 22.7377 -87.5645 239 240 239
-4.94806 21.524 -87.4873 233 237 234
-24.4384 21.7042 -90.3934 169 172 171
-7.75197 20.1214 -87.2993 122 128 134
-20.004 24.5768 -90.4873 152 149 147
-0.584785 25.6702 -90.4935 235 235 231
-20.7625 22.3387 -90.4451 140 120 131
-16.5348 -15.8874 -90.357 165 172 173
-4.25571 21.9091 -87.5723 235 235 233
-14.0578 24.5075 -90.4101 154 154 156
-1.76593 14.9142 -87.5151 232 236 235
-11.8023 2.36096 -88.9404 148 28 45
-15.039 8.08586 -90.4193 152 152 157
-0.194983 17.9179 -90.3961 112 104 103
-12.0553 15.5153 -90.5194 167 168 173
-20.0834 17.2229 -90.3876 168 171 170
-0.936207 -2.58722 -90.2731 54 54 65
3.54027 -12.7909 -89.8836 165 164 167
0.332803 19.2906 -90.2983 206 203 198
-25.7944 24.4358 -90.3648 172 174 170
-10.4175 10.9622 -90.4109 165 171 171
-20.7523 20.815 -90.4143 164 166 167
-12.1259 -7.63094 -90.4123 153 152 156
-11.7533 20.7951 -90.3259 150 150 152
-17.1549 -12.5109 -90.4008 181 186 184
-1.25397 -9.20447 -88.4822 238 238 150
-12.1231 4.80942 -90.3631 150 149 149
-15.9726 23.6231 -90.4905 151 152 153
-21.4793 15.101 -90.5052 169 172 173
-15.7699 -16.5465 -90.1877 163 168 173
-16.592 6.13627 -90.3616 172 180 181
1.10326 -7.02614 -87.7269 253 253 254
-11.8204 21.8529 -90.3039 149 148 150
1.52106 -2.37737 -90.3883 132 128 130
-23.1766 16.2824 -90.2765 170 172 173
-25.8491 23.7042 -90.2951 208 206 208
-14.0742 9.95388 -88.9345 86 101 112
-9.03281 -8.76961 -90.4399 146 146 148
-17.6084 4.37574 -90.4889 189 197 198
-20.0139 10.321 -90.492 181 185 185
-7.24428 22.0823 -87.5216 228 231 227
-12.9215 9.23703 -90.3254 127 89 97
-12.4988 5.9051 -90.4675 171 177 175
-15.6751 10.0488 -90.4105 175 182 181
-15.1881 12.5694 -90.4437 101 98 106
-2.14352 -5.86282 -90.3114 25 30 42
-17.5639 -8.14033 -90.4207 172 171 170
-3.86849 23.3797 -87.6129 233 239 238
-2.29438 2.22041 -90.2915 140 138 137
-17.3785 18.3282 -90.4683 168 169 172
-7.06375 21.8818 -87.6729 227 232 228
-4.42239 -8.12274 -90.2773 138 139 143
-8.11255 -12.9313 -90.224 142 139 145
-0.538377 0.632182 -90.394 163 161 158
-13.9058 -16.4307 -90.3339 164 169 170
-6.00048 4.00944 -90.3346 138 137 139
-12.301 14.7748 -90.5393 163 163 167
-2.79686 -13.3121 -90.0568 71 63 65
-14.7194 25.968 -90.4105 159 159 159
2.59727 -14.4281 -89.8994 166 165 166
1.8687 2.02662 -90.3071 168 167 166
-20.4662 23.6573 -90.4003 148 147 144
-3.17662 21.5275 -87.5503 229 235 232
-13.0146 19.4883 -90.4188 150 149 147
-22.3165 13.6195 -90.3905 170 173 174
-21.2813 1.19582 -90.4718 190 195 197
-3.52104 -12.8268 -90.0875 46 46 53
-22.0067 19.0568 -90.4253 172 174 173
-8.42003 13.1529 -90.313 165 167 169
-13.6838 25.995 -90.3916 149 147 145
-10.5182 10.0109 -90.3403 168 172 173
-14.0278 7.03227 -90.4236 173 178 177
-14.2787 25.8311 -90.3285 158 158 158
-10.3309 -3.30872 -90.3556 158 157 159
-15.02 -15.6921 -90.3204 165 166 170
-2.79886 12.0091 -87.5459 231 238 235
-16.6541 -15.9671 -90.298 165 172 173
-11.7059 8.13236 -90.4114 167 172 173
-5.56458 -14.4564 -90.0824 130 125 134
-7.92888 -2.42409 -90.2753 153 155 158
-3.3278 9.94633 -87.5129 228 230 227
-3.72543 22.6445 -87.4851 233 238 234
-10.7424 9.27453 -90.2834 169 174 173
-20.1811 22.7141 -90.3455 155 154 150
-13.1496 20.7165 -90.4999 150 148 146
-2.48633 15.7367 -87.5388 235 235 233
-3.65187 -11.3501 -88.7556 128 33 55
-9.06821 5.68664 -90.3647 142 142 143
-22.3859 11.2457 -90.3869 172 176 176
-18.4246 24.7537 -90.4023 146 145 143
-18.6307 -5.28737 -90.3654 176 182 184
-7.35209 1.1393 -90.416 150 150 152
-7.72221 23.3314 -87.6306 229 232 229
-7.66279 -2.4372 -90.3063 154 155 159
-9.25534 24.2728 -90.3546 163 154 152
-6.42965 17.3394 -90.3865 50 54 65
-21.3169 19.7823 -90.3319 188 191 190
-8.50737 22.6322 -86.6697 218 200 199
0.499255 -12.9141 -89.5929 198 196 200
-3.78727 17.2128 -87.507 228 234 232
-5.67917 2.33442 -90.3462 140 139 141
-13.4689 13.7771 -90.4867 165 172 172
-10.6016 -14.8603 -90.2429 148 153 155
-19.698 11.4058 -90.5171 181 186 183
-21.2936 13.1802 -90.5175 174 177 176
-13.9241 24.5557 -90.2848 154 154 156
-10.9101 23.4006 -90.4607 150 149 157
-10.6009 -14.0895 -90.2329 140 139 142
-20.5277 21.6555 -89.9949 190 171 166
-4.38077 -6.49053 -90.2676 130 128 131
-19.2269 6.04874 -90.5645 187 193 193
-3.50538 3.05111 -90.3473 132 129 130
1.70612 -7.21193 -90.0144 114 112 120
-15.7658 5.67882 -90.3759 160 164 163
-6.46257 4.09238 -90.3027 143 142 142
-20.4942 23.7118 -90.3889 147 147 144
-12.8317 21.1758 -90.3321 159 159 160
-2.98452 -3.54775 -90.1951 135 131 133
-15.1032 19.9781 -90.3586 141 140 141
-9.30944 -9.19354 -90.3336 147 146 149
-17.9715 4.99685 -90.4925 197 204 204
-7.05126 13.1634 -90.4394 161 164 165
-3.0153 -9.01324 -90.1077 110 117 88
-16.7565 8.82079 -90.3699 149 151 151
-9.93491 19.456 -90.3718 147 147 148
-17.6707 0.416104 -90.3943 187 194 196
-1.91436 0.346474 -90.3427 151 146 139
